ply
format ascii 1.0
element vertex 1250
property float32 x
property float32 y
property float32 z
element triangle 0
property float32 colorR
property float32 colorG
property float32 colorB
property float32 gloss
property list uchar int vertex_indices
end_header
-5.0 -5.0 4.0
-5.5 -6.0 3.5
-5.5 -6.0 4.5
-4.5 -6.0 4.5
-4.5 -6.0 3.5
-5.0 -5.0 6.0
-5.5 -6.0 5.5
-5.5 -6.0 6.5
-4.5 -6.0 6.5
-4.5 -6.0 5.5
-5.0 -5.0 8.0
-5.5 -6.0 7.5
-5.5 -6.0 8.5
-4.5 -6.0 8.5
-4.5 -6.0 7.5
-5.0 -5.0 10.0
-5.5 -6.0 9.5
-5.5 -6.0 10.5
-4.5 -6.0 10.5
-4.5 -6.0 9.5
-5.0 -5.0 12.0
-5.5 -6.0 11.5
-5.5 -6.0 12.5
-4.5 -6.0 12.5
-4.5 -6.0 11.5
-5.0 -5.0 14.0
-5.5 -6.0 13.5
-5.5 -6.0 14.5
-4.5 -6.0 14.5
-4.5 -6.0 13.5
-5.0 -5.0 16.0
-5.5 -6.0 15.5
-5.5 -6.0 16.5
-4.5 -6.0 16.5
-4.5 -6.0 15.5
-5.0 -5.0 18.0
-5.5 -6.0 17.5
-5.5 -6.0 18.5
-4.5 -6.0 18.5
-4.5 -6.0 17.5
-5.0 -5.0 20.0
-5.5 -6.0 19.5
-5.5 -6.0 20.5
-4.5 -6.0 20.5
-4.5 -6.0 19.5
-5.0 -5.0 22.0
-5.5 -6.0 21.5
-5.5 -6.0 22.5
-4.5 -6.0 22.5
-4.5 -6.0 21.5
-5.0 -3.0 4.0
-5.5 -4.0 3.5
-5.5 -4.0 4.5
-4.5 -4.0 4.5
-4.5 -4.0 3.5
-5.0 -3.0 6.0
-5.5 -4.0 5.5
-5.5 -4.0 6.5
-4.5 -4.0 6.5
-4.5 -4.0 5.5
-5.0 -3.0 8.0
-5.5 -4.0 7.5
-5.5 -4.0 8.5
-4.5 -4.0 8.5
-4.5 -4.0 7.5
-5.0 -3.0 10.0
-5.5 -4.0 9.5
-5.5 -4.0 10.5
-4.5 -4.0 10.5
-4.5 -4.0 9.5
-5.0 -3.0 12.0
-5.5 -4.0 11.5
-5.5 -4.0 12.5
-4.5 -4.0 12.5
-4.5 -4.0 11.5
-5.0 -3.0 14.0
-5.5 -4.0 13.5
-5.5 -4.0 14.5
-4.5 -4.0 14.5
-4.5 -4.0 13.5
-5.0 -3.0 16.0
-5.5 -4.0 15.5
-5.5 -4.0 16.5
-4.5 -4.0 16.5
-4.5 -4.0 15.5
-5.0 -3.0 18.0
-5.5 -4.0 17.5
-5.5 -4.0 18.5
-4.5 -4.0 18.5
-4.5 -4.0 17.5
-5.0 -3.0 20.0
-5.5 -4.0 19.5
-5.5 -4.0 20.5
-4.5 -4.0 20.5
-4.5 -4.0 19.5
-5.0 -3.0 22.0
-5.5 -4.0 21.5
-5.5 -4.0 22.5
-4.5 -4.0 22.5
-4.5 -4.0 21.5
-5.0 -1.0 4.0
-5.5 -2.0 3.5
-5.5 -2.0 4.5
-4.5 -2.0 4.5
-4.5 -2.0 3.5
-5.0 -1.0 6.0
-5.5 -2.0 5.5
-5.5 -2.0 6.5
-4.5 -2.0 6.5
-4.5 -2.0 5.5
-5.0 -1.0 8.0
-5.5 -2.0 7.5
-5.5 -2.0 8.5
-4.5 -2.0 8.5
-4.5 -2.0 7.5
-5.0 -1.0 10.0
-5.5 -2.0 9.5
-5.5 -2.0 10.5
-4.5 -2.0 10.5
-4.5 -2.0 9.5
-5.0 -1.0 12.0
-5.5 -2.0 11.5
-5.5 -2.0 12.5
-4.5 -2.0 12.5
-4.5 -2.0 11.5
-5.0 -1.0 14.0
-5.5 -2.0 13.5
-5.5 -2.0 14.5
-4.5 -2.0 14.5
-4.5 -2.0 13.5
-5.0 -1.0 16.0
-5.5 -2.0 15.5
-5.5 -2.0 16.5
-4.5 -2.0 16.5
-4.5 -2.0 15.5
-5.0 -1.0 18.0
-5.5 -2.0 17.5
-5.5 -2.0 18.5
-4.5 -2.0 18.5
-4.5 -2.0 17.5
-5.0 -1.0 20.0
-5.5 -2.0 19.5
-5.5 -2.0 20.5
-4.5 -2.0 20.5
-4.5 -2.0 19.5
-5.0 -1.0 22.0
-5.5 -2.0 21.5
-5.5 -2.0 22.5
-4.5 -2.0 22.5
-4.5 -2.0 21.5
-5.0 1.0 4.0
-5.5 0.0 3.5
-5.5 0.0 4.5
-4.5 0.0 4.5
-4.5 0.0 3.5
-5.0 1.0 6.0
-5.5 0.0 5.5
-5.5 0.0 6.5
-4.5 0.0 6.5
-4.5 0.0 5.5
-5.0 1.0 8.0
-5.5 0.0 7.5
-5.5 0.0 8.5
-4.5 0.0 8.5
-4.5 0.0 7.5
-5.0 1.0 10.0
-5.5 0.0 9.5
-5.5 0.0 10.5
-4.5 0.0 10.5
-4.5 0.0 9.5
-5.0 1.0 12.0
-5.5 0.0 11.5
-5.5 0.0 12.5
-4.5 0.0 12.5
-4.5 0.0 11.5
-5.0 1.0 14.0
-5.5 0.0 13.5
-5.5 0.0 14.5
-4.5 0.0 14.5
-4.5 0.0 13.5
-5.0 1.0 16.0
-5.5 0.0 15.5
-5.5 0.0 16.5
-4.5 0.0 16.5
-4.5 0.0 15.5
-5.0 1.0 18.0
-5.5 0.0 17.5
-5.5 0.0 18.5
-4.5 0.0 18.5
-4.5 0.0 17.5
-5.0 1.0 20.0
-5.5 0.0 19.5
-5.5 0.0 20.5
-4.5 0.0 20.5
-4.5 0.0 19.5
-5.0 1.0 22.0
-5.5 0.0 21.5
-5.5 0.0 22.5
-4.5 0.0 22.5
-4.5 0.0 21.5
-5.0 3.0 4.0
-5.5 2.0 3.5
-5.5 2.0 4.5
-4.5 2.0 4.5
-4.5 2.0 3.5
-5.0 3.0 6.0
-5.5 2.0 5.5
-5.5 2.0 6.5
-4.5 2.0 6.5
-4.5 2.0 5.5
-5.0 3.0 8.0
-5.5 2.0 7.5
-5.5 2.0 8.5
-4.5 2.0 8.5
-4.5 2.0 7.5
-5.0 3.0 10.0
-5.5 2.0 9.5
-5.5 2.0 10.5
-4.5 2.0 10.5
-4.5 2.0 9.5
-5.0 3.0 12.0
-5.5 2.0 11.5
-5.5 2.0 12.5
-4.5 2.0 12.5
-4.5 2.0 11.5
-5.0 3.0 14.0
-5.5 2.0 13.5
-5.5 2.0 14.5
-4.5 2.0 14.5
-4.5 2.0 13.5
-5.0 3.0 16.0
-5.5 2.0 15.5
-5.5 2.0 16.5
-4.5 2.0 16.5
-4.5 2.0 15.5
-5.0 3.0 18.0
-5.5 2.0 17.5
-5.5 2.0 18.5
-4.5 2.0 18.5
-4.5 2.0 17.5
-5.0 3.0 20.0
-5.5 2.0 19.5
-5.5 2.0 20.5
-4.5 2.0 20.5
-4.5 2.0 19.5
-5.0 3.0 22.0
-5.5 2.0 21.5
-5.5 2.0 22.5
-4.5 2.0 22.5
-4.5 2.0 21.5
-3.0 -5.0 4.0
-3.5 -6.0 3.5
-3.5 -6.0 4.5
-2.5 -6.0 4.5
-2.5 -6.0 3.5
-3.0 -5.0 6.0
-3.5 -6.0 5.5
-3.5 -6.0 6.5
-2.5 -6.0 6.5
-2.5 -6.0 5.5
-3.0 -5.0 8.0
-3.5 -6.0 7.5
-3.5 -6.0 8.5
-2.5 -6.0 8.5
-2.5 -6.0 7.5
-3.0 -5.0 10.0
-3.5 -6.0 9.5
-3.5 -6.0 10.5
-2.5 -6.0 10.5
-2.5 -6.0 9.5
-3.0 -5.0 12.0
-3.5 -6.0 11.5
-3.5 -6.0 12.5
-2.5 -6.0 12.5
-2.5 -6.0 11.5
-3.0 -5.0 14.0
-3.5 -6.0 13.5
-3.5 -6.0 14.5
-2.5 -6.0 14.5
-2.5 -6.0 13.5
-3.0 -5.0 16.0
-3.5 -6.0 15.5
-3.5 -6.0 16.5
-2.5 -6.0 16.5
-2.5 -6.0 15.5
-3.0 -5.0 18.0
-3.5 -6.0 17.5
-3.5 -6.0 18.5
-2.5 -6.0 18.5
-2.5 -6.0 17.5
-3.0 -5.0 20.0
-3.5 -6.0 19.5
-3.5 -6.0 20.5
-2.5 -6.0 20.5
-2.5 -6.0 19.5
-3.0 -5.0 22.0
-3.5 -6.0 21.5
-3.5 -6.0 22.5
-2.5 -6.0 22.5
-2.5 -6.0 21.5
-3.0 -3.0 4.0
-3.5 -4.0 3.5
-3.5 -4.0 4.5
-2.5 -4.0 4.5
-2.5 -4.0 3.5
-3.0 -3.0 6.0
-3.5 -4.0 5.5
-3.5 -4.0 6.5
-2.5 -4.0 6.5
-2.5 -4.0 5.5
-3.0 -3.0 8.0
-3.5 -4.0 7.5
-3.5 -4.0 8.5
-2.5 -4.0 8.5
-2.5 -4.0 7.5
-3.0 -3.0 10.0
-3.5 -4.0 9.5
-3.5 -4.0 10.5
-2.5 -4.0 10.5
-2.5 -4.0 9.5
-3.0 -3.0 12.0
-3.5 -4.0 11.5
-3.5 -4.0 12.5
-2.5 -4.0 12.5
-2.5 -4.0 11.5
-3.0 -3.0 14.0
-3.5 -4.0 13.5
-3.5 -4.0 14.5
-2.5 -4.0 14.5
-2.5 -4.0 13.5
-3.0 -3.0 16.0
-3.5 -4.0 15.5
-3.5 -4.0 16.5
-2.5 -4.0 16.5
-2.5 -4.0 15.5
-3.0 -3.0 18.0
-3.5 -4.0 17.5
-3.5 -4.0 18.5
-2.5 -4.0 18.5
-2.5 -4.0 17.5
-3.0 -3.0 20.0
-3.5 -4.0 19.5
-3.5 -4.0 20.5
-2.5 -4.0 20.5
-2.5 -4.0 19.5
-3.0 -3.0 22.0
-3.5 -4.0 21.5
-3.5 -4.0 22.5
-2.5 -4.0 22.5
-2.5 -4.0 21.5
-3.0 -1.0 4.0
-3.5 -2.0 3.5
-3.5 -2.0 4.5
-2.5 -2.0 4.5
-2.5 -2.0 3.5
-3.0 -1.0 6.0
-3.5 -2.0 5.5
-3.5 -2.0 6.5
-2.5 -2.0 6.5
-2.5 -2.0 5.5
-3.0 -1.0 8.0
-3.5 -2.0 7.5
-3.5 -2.0 8.5
-2.5 -2.0 8.5
-2.5 -2.0 7.5
-3.0 -1.0 10.0
-3.5 -2.0 9.5
-3.5 -2.0 10.5
-2.5 -2.0 10.5
-2.5 -2.0 9.5
-3.0 -1.0 12.0
-3.5 -2.0 11.5
-3.5 -2.0 12.5
-2.5 -2.0 12.5
-2.5 -2.0 11.5
-3.0 -1.0 14.0
-3.5 -2.0 13.5
-3.5 -2.0 14.5
-2.5 -2.0 14.5
-2.5 -2.0 13.5
-3.0 -1.0 16.0
-3.5 -2.0 15.5
-3.5 -2.0 16.5
-2.5 -2.0 16.5
-2.5 -2.0 15.5
-3.0 -1.0 18.0
-3.5 -2.0 17.5
-3.5 -2.0 18.5
-2.5 -2.0 18.5
-2.5 -2.0 17.5
-3.0 -1.0 20.0
-3.5 -2.0 19.5
-3.5 -2.0 20.5
-2.5 -2.0 20.5
-2.5 -2.0 19.5
-3.0 -1.0 22.0
-3.5 -2.0 21.5
-3.5 -2.0 22.5
-2.5 -2.0 22.5
-2.5 -2.0 21.5
-3.0 1.0 4.0
-3.5 0.0 3.5
-3.5 0.0 4.5
-2.5 0.0 4.5
-2.5 0.0 3.5
-3.0 1.0 6.0
-3.5 0.0 5.5
-3.5 0.0 6.5
-2.5 0.0 6.5
-2.5 0.0 5.5
-3.0 1.0 8.0
-3.5 0.0 7.5
-3.5 0.0 8.5
-2.5 0.0 8.5
-2.5 0.0 7.5
-3.0 1.0 10.0
-3.5 0.0 9.5
-3.5 0.0 10.5
-2.5 0.0 10.5
-2.5 0.0 9.5
-3.0 1.0 12.0
-3.5 0.0 11.5
-3.5 0.0 12.5
-2.5 0.0 12.5
-2.5 0.0 11.5
-3.0 1.0 14.0
-3.5 0.0 13.5
-3.5 0.0 14.5
-2.5 0.0 14.5
-2.5 0.0 13.5
-3.0 1.0 16.0
-3.5 0.0 15.5
-3.5 0.0 16.5
-2.5 0.0 16.5
-2.5 0.0 15.5
-3.0 1.0 18.0
-3.5 0.0 17.5
-3.5 0.0 18.5
-2.5 0.0 18.5
-2.5 0.0 17.5
-3.0 1.0 20.0
-3.5 0.0 19.5
-3.5 0.0 20.5
-2.5 0.0 20.5
-2.5 0.0 19.5
-3.0 1.0 22.0
-3.5 0.0 21.5
-3.5 0.0 22.5
-2.5 0.0 22.5
-2.5 0.0 21.5
-3.0 3.0 4.0
-3.5 2.0 3.5
-3.5 2.0 4.5
-2.5 2.0 4.5
-2.5 2.0 3.5
-3.0 3.0 6.0
-3.5 2.0 5.5
-3.5 2.0 6.5
-2.5 2.0 6.5
-2.5 2.0 5.5
-3.0 3.0 8.0
-3.5 2.0 7.5
-3.5 2.0 8.5
-2.5 2.0 8.5
-2.5 2.0 7.5
-3.0 3.0 10.0
-3.5 2.0 9.5
-3.5 2.0 10.5
-2.5 2.0 10.5
-2.5 2.0 9.5
-3.0 3.0 12.0
-3.5 2.0 11.5
-3.5 2.0 12.5
-2.5 2.0 12.5
-2.5 2.0 11.5
-3.0 3.0 14.0
-3.5 2.0 13.5
-3.5 2.0 14.5
-2.5 2.0 14.5
-2.5 2.0 13.5
-3.0 3.0 16.0
-3.5 2.0 15.5
-3.5 2.0 16.5
-2.5 2.0 16.5
-2.5 2.0 15.5
-3.0 3.0 18.0
-3.5 2.0 17.5
-3.5 2.0 18.5
-2.5 2.0 18.5
-2.5 2.0 17.5
-3.0 3.0 20.0
-3.5 2.0 19.5
-3.5 2.0 20.5
-2.5 2.0 20.5
-2.5 2.0 19.5
-3.0 3.0 22.0
-3.5 2.0 21.5
-3.5 2.0 22.5
-2.5 2.0 22.5
-2.5 2.0 21.5
-1.0 -5.0 4.0
-1.5 -6.0 3.5
-1.5 -6.0 4.5
-0.5 -6.0 4.5
-0.5 -6.0 3.5
-1.0 -5.0 6.0
-1.5 -6.0 5.5
-1.5 -6.0 6.5
-0.5 -6.0 6.5
-0.5 -6.0 5.5
-1.0 -5.0 8.0
-1.5 -6.0 7.5
-1.5 -6.0 8.5
-0.5 -6.0 8.5
-0.5 -6.0 7.5
-1.0 -5.0 10.0
-1.5 -6.0 9.5
-1.5 -6.0 10.5
-0.5 -6.0 10.5
-0.5 -6.0 9.5
-1.0 -5.0 12.0
-1.5 -6.0 11.5
-1.5 -6.0 12.5
-0.5 -6.0 12.5
-0.5 -6.0 11.5
-1.0 -5.0 14.0
-1.5 -6.0 13.5
-1.5 -6.0 14.5
-0.5 -6.0 14.5
-0.5 -6.0 13.5
-1.0 -5.0 16.0
-1.5 -6.0 15.5
-1.5 -6.0 16.5
-0.5 -6.0 16.5
-0.5 -6.0 15.5
-1.0 -5.0 18.0
-1.5 -6.0 17.5
-1.5 -6.0 18.5
-0.5 -6.0 18.5
-0.5 -6.0 17.5
-1.0 -5.0 20.0
-1.5 -6.0 19.5
-1.5 -6.0 20.5
-0.5 -6.0 20.5
-0.5 -6.0 19.5
-1.0 -5.0 22.0
-1.5 -6.0 21.5
-1.5 -6.0 22.5
-0.5 -6.0 22.5
-0.5 -6.0 21.5
-1.0 -3.0 4.0
-1.5 -4.0 3.5
-1.5 -4.0 4.5
-0.5 -4.0 4.5
-0.5 -4.0 3.5
-1.0 -3.0 6.0
-1.5 -4.0 5.5
-1.5 -4.0 6.5
-0.5 -4.0 6.5
-0.5 -4.0 5.5
-1.0 -3.0 8.0
-1.5 -4.0 7.5
-1.5 -4.0 8.5
-0.5 -4.0 8.5
-0.5 -4.0 7.5
-1.0 -3.0 10.0
-1.5 -4.0 9.5
-1.5 -4.0 10.5
-0.5 -4.0 10.5
-0.5 -4.0 9.5
-1.0 -3.0 12.0
-1.5 -4.0 11.5
-1.5 -4.0 12.5
-0.5 -4.0 12.5
-0.5 -4.0 11.5
-1.0 -3.0 14.0
-1.5 -4.0 13.5
-1.5 -4.0 14.5
-0.5 -4.0 14.5
-0.5 -4.0 13.5
-1.0 -3.0 16.0
-1.5 -4.0 15.5
-1.5 -4.0 16.5
-0.5 -4.0 16.5
-0.5 -4.0 15.5
-1.0 -3.0 18.0
-1.5 -4.0 17.5
-1.5 -4.0 18.5
-0.5 -4.0 18.5
-0.5 -4.0 17.5
-1.0 -3.0 20.0
-1.5 -4.0 19.5
-1.5 -4.0 20.5
-0.5 -4.0 20.5
-0.5 -4.0 19.5
-1.0 -3.0 22.0
-1.5 -4.0 21.5
-1.5 -4.0 22.5
-0.5 -4.0 22.5
-0.5 -4.0 21.5
-1.0 -1.0 4.0
-1.5 -2.0 3.5
-1.5 -2.0 4.5
-0.5 -2.0 4.5
-0.5 -2.0 3.5
-1.0 -1.0 6.0
-1.5 -2.0 5.5
-1.5 -2.0 6.5
-0.5 -2.0 6.5
-0.5 -2.0 5.5
-1.0 -1.0 8.0
-1.5 -2.0 7.5
-1.5 -2.0 8.5
-0.5 -2.0 8.5
-0.5 -2.0 7.5
-1.0 -1.0 10.0
-1.5 -2.0 9.5
-1.5 -2.0 10.5
-0.5 -2.0 10.5
-0.5 -2.0 9.5
-1.0 -1.0 12.0
-1.5 -2.0 11.5
-1.5 -2.0 12.5
-0.5 -2.0 12.5
-0.5 -2.0 11.5
-1.0 -1.0 14.0
-1.5 -2.0 13.5
-1.5 -2.0 14.5
-0.5 -2.0 14.5
-0.5 -2.0 13.5
-1.0 -1.0 16.0
-1.5 -2.0 15.5
-1.5 -2.0 16.5
-0.5 -2.0 16.5
-0.5 -2.0 15.5
-1.0 -1.0 18.0
-1.5 -2.0 17.5
-1.5 -2.0 18.5
-0.5 -2.0 18.5
-0.5 -2.0 17.5
-1.0 -1.0 20.0
-1.5 -2.0 19.5
-1.5 -2.0 20.5
-0.5 -2.0 20.5
-0.5 -2.0 19.5
-1.0 -1.0 22.0
-1.5 -2.0 21.5
-1.5 -2.0 22.5
-0.5 -2.0 22.5
-0.5 -2.0 21.5
-1.0 1.0 4.0
-1.5 0.0 3.5
-1.5 0.0 4.5
-0.5 0.0 4.5
-0.5 0.0 3.5
-1.0 1.0 6.0
-1.5 0.0 5.5
-1.5 0.0 6.5
-0.5 0.0 6.5
-0.5 0.0 5.5
-1.0 1.0 8.0
-1.5 0.0 7.5
-1.5 0.0 8.5
-0.5 0.0 8.5
-0.5 0.0 7.5
-1.0 1.0 10.0
-1.5 0.0 9.5
-1.5 0.0 10.5
-0.5 0.0 10.5
-0.5 0.0 9.5
-1.0 1.0 12.0
-1.5 0.0 11.5
-1.5 0.0 12.5
-0.5 0.0 12.5
-0.5 0.0 11.5
-1.0 1.0 14.0
-1.5 0.0 13.5
-1.5 0.0 14.5
-0.5 0.0 14.5
-0.5 0.0 13.5
-1.0 1.0 16.0
-1.5 0.0 15.5
-1.5 0.0 16.5
-0.5 0.0 16.5
-0.5 0.0 15.5
-1.0 1.0 18.0
-1.5 0.0 17.5
-1.5 0.0 18.5
-0.5 0.0 18.5
-0.5 0.0 17.5
-1.0 1.0 20.0
-1.5 0.0 19.5
-1.5 0.0 20.5
-0.5 0.0 20.5
-0.5 0.0 19.5
-1.0 1.0 22.0
-1.5 0.0 21.5
-1.5 0.0 22.5
-0.5 0.0 22.5
-0.5 0.0 21.5
-1.0 3.0 4.0
-1.5 2.0 3.5
-1.5 2.0 4.5
-0.5 2.0 4.5
-0.5 2.0 3.5
-1.0 3.0 6.0
-1.5 2.0 5.5
-1.5 2.0 6.5
-0.5 2.0 6.5
-0.5 2.0 5.5
-1.0 3.0 8.0
-1.5 2.0 7.5
-1.5 2.0 8.5
-0.5 2.0 8.5
-0.5 2.0 7.5
-1.0 3.0 10.0
-1.5 2.0 9.5
-1.5 2.0 10.5
-0.5 2.0 10.5
-0.5 2.0 9.5
-1.0 3.0 12.0
-1.5 2.0 11.5
-1.5 2.0 12.5
-0.5 2.0 12.5
-0.5 2.0 11.5
-1.0 3.0 14.0
-1.5 2.0 13.5
-1.5 2.0 14.5
-0.5 2.0 14.5
-0.5 2.0 13.5
-1.0 3.0 16.0
-1.5 2.0 15.5
-1.5 2.0 16.5
-0.5 2.0 16.5
-0.5 2.0 15.5
-1.0 3.0 18.0
-1.5 2.0 17.5
-1.5 2.0 18.5
-0.5 2.0 18.5
-0.5 2.0 17.5
-1.0 3.0 20.0
-1.5 2.0 19.5
-1.5 2.0 20.5
-0.5 2.0 20.5
-0.5 2.0 19.5
-1.0 3.0 22.0
-1.5 2.0 21.5
-1.5 2.0 22.5
-0.5 2.0 22.5
-0.5 2.0 21.5
1.0 -5.0 4.0
0.5 -6.0 3.5
0.5 -6.0 4.5
1.5 -6.0 4.5
1.5 -6.0 3.5
1.0 -5.0 6.0
0.5 -6.0 5.5
0.5 -6.0 6.5
1.5 -6.0 6.5
1.5 -6.0 5.5
1.0 -5.0 8.0
0.5 -6.0 7.5
0.5 -6.0 8.5
1.5 -6.0 8.5
1.5 -6.0 7.5
1.0 -5.0 10.0
0.5 -6.0 9.5
0.5 -6.0 10.5
1.5 -6.0 10.5
1.5 -6.0 9.5
1.0 -5.0 12.0
0.5 -6.0 11.5
0.5 -6.0 12.5
1.5 -6.0 12.5
1.5 -6.0 11.5
1.0 -5.0 14.0
0.5 -6.0 13.5
0.5 -6.0 14.5
1.5 -6.0 14.5
1.5 -6.0 13.5
1.0 -5.0 16.0
0.5 -6.0 15.5
0.5 -6.0 16.5
1.5 -6.0 16.5
1.5 -6.0 15.5
1.0 -5.0 18.0
0.5 -6.0 17.5
0.5 -6.0 18.5
1.5 -6.0 18.5
1.5 -6.0 17.5
1.0 -5.0 20.0
0.5 -6.0 19.5
0.5 -6.0 20.5
1.5 -6.0 20.5
1.5 -6.0 19.5
1.0 -5.0 22.0
0.5 -6.0 21.5
0.5 -6.0 22.5
1.5 -6.0 22.5
1.5 -6.0 21.5
1.0 -3.0 4.0
0.5 -4.0 3.5
0.5 -4.0 4.5
1.5 -4.0 4.5
1.5 -4.0 3.5
1.0 -3.0 6.0
0.5 -4.0 5.5
0.5 -4.0 6.5
1.5 -4.0 6.5
1.5 -4.0 5.5
1.0 -3.0 8.0
0.5 -4.0 7.5
0.5 -4.0 8.5
1.5 -4.0 8.5
1.5 -4.0 7.5
1.0 -3.0 10.0
0.5 -4.0 9.5
0.5 -4.0 10.5
1.5 -4.0 10.5
1.5 -4.0 9.5
1.0 -3.0 12.0
0.5 -4.0 11.5
0.5 -4.0 12.5
1.5 -4.0 12.5
1.5 -4.0 11.5
1.0 -3.0 14.0
0.5 -4.0 13.5
0.5 -4.0 14.5
1.5 -4.0 14.5
1.5 -4.0 13.5
1.0 -3.0 16.0
0.5 -4.0 15.5
0.5 -4.0 16.5
1.5 -4.0 16.5
1.5 -4.0 15.5
1.0 -3.0 18.0
0.5 -4.0 17.5
0.5 -4.0 18.5
1.5 -4.0 18.5
1.5 -4.0 17.5
1.0 -3.0 20.0
0.5 -4.0 19.5
0.5 -4.0 20.5
1.5 -4.0 20.5
1.5 -4.0 19.5
1.0 -3.0 22.0
0.5 -4.0 21.5
0.5 -4.0 22.5
1.5 -4.0 22.5
1.5 -4.0 21.5
1.0 -1.0 4.0
0.5 -2.0 3.5
0.5 -2.0 4.5
1.5 -2.0 4.5
1.5 -2.0 3.5
1.0 -1.0 6.0
0.5 -2.0 5.5
0.5 -2.0 6.5
1.5 -2.0 6.5
1.5 -2.0 5.5
1.0 -1.0 8.0
0.5 -2.0 7.5
0.5 -2.0 8.5
1.5 -2.0 8.5
1.5 -2.0 7.5
1.0 -1.0 10.0
0.5 -2.0 9.5
0.5 -2.0 10.5
1.5 -2.0 10.5
1.5 -2.0 9.5
1.0 -1.0 12.0
0.5 -2.0 11.5
0.5 -2.0 12.5
1.5 -2.0 12.5
1.5 -2.0 11.5
1.0 -1.0 14.0
0.5 -2.0 13.5
0.5 -2.0 14.5
1.5 -2.0 14.5
1.5 -2.0 13.5
1.0 -1.0 16.0
0.5 -2.0 15.5
0.5 -2.0 16.5
1.5 -2.0 16.5
1.5 -2.0 15.5
1.0 -1.0 18.0
0.5 -2.0 17.5
0.5 -2.0 18.5
1.5 -2.0 18.5
1.5 -2.0 17.5
1.0 -1.0 20.0
0.5 -2.0 19.5
0.5 -2.0 20.5
1.5 -2.0 20.5
1.5 -2.0 19.5
1.0 -1.0 22.0
0.5 -2.0 21.5
0.5 -2.0 22.5
1.5 -2.0 22.5
1.5 -2.0 21.5
1.0 1.0 4.0
0.5 0.0 3.5
0.5 0.0 4.5
1.5 0.0 4.5
1.5 0.0 3.5
1.0 1.0 6.0
0.5 0.0 5.5
0.5 0.0 6.5
1.5 0.0 6.5
1.5 0.0 5.5
1.0 1.0 8.0
0.5 0.0 7.5
0.5 0.0 8.5
1.5 0.0 8.5
1.5 0.0 7.5
1.0 1.0 10.0
0.5 0.0 9.5
0.5 0.0 10.5
1.5 0.0 10.5
1.5 0.0 9.5
1.0 1.0 12.0
0.5 0.0 11.5
0.5 0.0 12.5
1.5 0.0 12.5
1.5 0.0 11.5
1.0 1.0 14.0
0.5 0.0 13.5
0.5 0.0 14.5
1.5 0.0 14.5
1.5 0.0 13.5
1.0 1.0 16.0
0.5 0.0 15.5
0.5 0.0 16.5
1.5 0.0 16.5
1.5 0.0 15.5
1.0 1.0 18.0
0.5 0.0 17.5
0.5 0.0 18.5
1.5 0.0 18.5
1.5 0.0 17.5
1.0 1.0 20.0
0.5 0.0 19.5
0.5 0.0 20.5
1.5 0.0 20.5
1.5 0.0 19.5
1.0 1.0 22.0
0.5 0.0 21.5
0.5 0.0 22.5
1.5 0.0 22.5
1.5 0.0 21.5
1.0 3.0 4.0
0.5 2.0 3.5
0.5 2.0 4.5
1.5 2.0 4.5
1.5 2.0 3.5
1.0 3.0 6.0
0.5 2.0 5.5
0.5 2.0 6.5
1.5 2.0 6.5
1.5 2.0 5.5
1.0 3.0 8.0
0.5 2.0 7.5
0.5 2.0 8.5
1.5 2.0 8.5
1.5 2.0 7.5
1.0 3.0 10.0
0.5 2.0 9.5
0.5 2.0 10.5
1.5 2.0 10.5
1.5 2.0 9.5
1.0 3.0 12.0
0.5 2.0 11.5
0.5 2.0 12.5
1.5 2.0 12.5
1.5 2.0 11.5
1.0 3.0 14.0
0.5 2.0 13.5
0.5 2.0 14.5
1.5 2.0 14.5
1.5 2.0 13.5
1.0 3.0 16.0
0.5 2.0 15.5
0.5 2.0 16.5
1.5 2.0 16.5
1.5 2.0 15.5
1.0 3.0 18.0
0.5 2.0 17.5
0.5 2.0 18.5
1.5 2.0 18.5
1.5 2.0 17.5
1.0 3.0 20.0
0.5 2.0 19.5
0.5 2.0 20.5
1.5 2.0 20.5
1.5 2.0 19.5
1.0 3.0 22.0
0.5 2.0 21.5
0.5 2.0 22.5
1.5 2.0 22.5
1.5 2.0 21.5
3.0 -5.0 4.0
2.5 -6.0 3.5
2.5 -6.0 4.5
3.5 -6.0 4.5
3.5 -6.0 3.5
3.0 -5.0 6.0
2.5 -6.0 5.5
2.5 -6.0 6.5
3.5 -6.0 6.5
3.5 -6.0 5.5
3.0 -5.0 8.0
2.5 -6.0 7.5
2.5 -6.0 8.5
3.5 -6.0 8.5
3.5 -6.0 7.5
3.0 -5.0 10.0
2.5 -6.0 9.5
2.5 -6.0 10.5
3.5 -6.0 10.5
3.5 -6.0 9.5
3.0 -5.0 12.0
2.5 -6.0 11.5
2.5 -6.0 12.5
3.5 -6.0 12.5
3.5 -6.0 11.5
3.0 -5.0 14.0
2.5 -6.0 13.5
2.5 -6.0 14.5
3.5 -6.0 14.5
3.5 -6.0 13.5
3.0 -5.0 16.0
2.5 -6.0 15.5
2.5 -6.0 16.5
3.5 -6.0 16.5
3.5 -6.0 15.5
3.0 -5.0 18.0
2.5 -6.0 17.5
2.5 -6.0 18.5
3.5 -6.0 18.5
3.5 -6.0 17.5
3.0 -5.0 20.0
2.5 -6.0 19.5
2.5 -6.0 20.5
3.5 -6.0 20.5
3.5 -6.0 19.5
3.0 -5.0 22.0
2.5 -6.0 21.5
2.5 -6.0 22.5
3.5 -6.0 22.5
3.5 -6.0 21.5
3.0 -3.0 4.0
2.5 -4.0 3.5
2.5 -4.0 4.5
3.5 -4.0 4.5
3.5 -4.0 3.5
3.0 -3.0 6.0
2.5 -4.0 5.5
2.5 -4.0 6.5
3.5 -4.0 6.5
3.5 -4.0 5.5
3.0 -3.0 8.0
2.5 -4.0 7.5
2.5 -4.0 8.5
3.5 -4.0 8.5
3.5 -4.0 7.5
3.0 -3.0 10.0
2.5 -4.0 9.5
2.5 -4.0 10.5
3.5 -4.0 10.5
3.5 -4.0 9.5
3.0 -3.0 12.0
2.5 -4.0 11.5
2.5 -4.0 12.5
3.5 -4.0 12.5
3.5 -4.0 11.5
3.0 -3.0 14.0
2.5 -4.0 13.5
2.5 -4.0 14.5
3.5 -4.0 14.5
3.5 -4.0 13.5
3.0 -3.0 16.0
2.5 -4.0 15.5
2.5 -4.0 16.5
3.5 -4.0 16.5
3.5 -4.0 15.5
3.0 -3.0 18.0
2.5 -4.0 17.5
2.5 -4.0 18.5
3.5 -4.0 18.5
3.5 -4.0 17.5
3.0 -3.0 20.0
2.5 -4.0 19.5
2.5 -4.0 20.5
3.5 -4.0 20.5
3.5 -4.0 19.5
3.0 -3.0 22.0
2.5 -4.0 21.5
2.5 -4.0 22.5
3.5 -4.0 22.5
3.5 -4.0 21.5
3.0 -1.0 4.0
2.5 -2.0 3.5
2.5 -2.0 4.5
3.5 -2.0 4.5
3.5 -2.0 3.5
3.0 -1.0 6.0
2.5 -2.0 5.5
2.5 -2.0 6.5
3.5 -2.0 6.5
3.5 -2.0 5.5
3.0 -1.0 8.0
2.5 -2.0 7.5
2.5 -2.0 8.5
3.5 -2.0 8.5
3.5 -2.0 7.5
3.0 -1.0 10.0
2.5 -2.0 9.5
2.5 -2.0 10.5
3.5 -2.0 10.5
3.5 -2.0 9.5
3.0 -1.0 12.0
2.5 -2.0 11.5
2.5 -2.0 12.5
3.5 -2.0 12.5
3.5 -2.0 11.5
3.0 -1.0 14.0
2.5 -2.0 13.5
2.5 -2.0 14.5
3.5 -2.0 14.5
3.5 -2.0 13.5
3.0 -1.0 16.0
2.5 -2.0 15.5
2.5 -2.0 16.5
3.5 -2.0 16.5
3.5 -2.0 15.5
3.0 -1.0 18.0
2.5 -2.0 17.5
2.5 -2.0 18.5
3.5 -2.0 18.5
3.5 -2.0 17.5
3.0 -1.0 20.0
2.5 -2.0 19.5
2.5 -2.0 20.5
3.5 -2.0 20.5
3.5 -2.0 19.5
3.0 -1.0 22.0
2.5 -2.0 21.5
2.5 -2.0 22.5
3.5 -2.0 22.5
3.5 -2.0 21.5
3.0 1.0 4.0
2.5 0.0 3.5
2.5 0.0 4.5
3.5 0.0 4.5
3.5 0.0 3.5
3.0 1.0 6.0
2.5 0.0 5.5
2.5 0.0 6.5
3.5 0.0 6.5
3.5 0.0 5.5
3.0 1.0 8.0
2.5 0.0 7.5
2.5 0.0 8.5
3.5 0.0 8.5
3.5 0.0 7.5
3.0 1.0 10.0
2.5 0.0 9.5
2.5 0.0 10.5
3.5 0.0 10.5
3.5 0.0 9.5
3.0 1.0 12.0
2.5 0.0 11.5
2.5 0.0 12.5
3.5 0.0 12.5
3.5 0.0 11.5
3.0 1.0 14.0
2.5 0.0 13.5
2.5 0.0 14.5
3.5 0.0 14.5
3.5 0.0 13.5
3.0 1.0 16.0
2.5 0.0 15.5
2.5 0.0 16.5
3.5 0.0 16.5
3.5 0.0 15.5
3.0 1.0 18.0
2.5 0.0 17.5
2.5 0.0 18.5
3.5 0.0 18.5
3.5 0.0 17.5
3.0 1.0 20.0
2.5 0.0 19.5
2.5 0.0 20.5
3.5 0.0 20.5
3.5 0.0 19.5
3.0 1.0 22.0
2.5 0.0 21.5
2.5 0.0 22.5
3.5 0.0 22.5
3.5 0.0 21.5
3.0 3.0 4.0
2.5 2.0 3.5
2.5 2.0 4.5
3.5 2.0 4.5
3.5 2.0 3.5
3.0 3.0 6.0
2.5 2.0 5.5
2.5 2.0 6.5
3.5 2.0 6.5
3.5 2.0 5.5
3.0 3.0 8.0
2.5 2.0 7.5
2.5 2.0 8.5
3.5 2.0 8.5
3.5 2.0 7.5
3.0 3.0 10.0
2.5 2.0 9.5
2.5 2.0 10.5
3.5 2.0 10.5
3.5 2.0 9.5
3.0 3.0 12.0
2.5 2.0 11.5
2.5 2.0 12.5
3.5 2.0 12.5
3.5 2.0 11.5
3.0 3.0 14.0
2.5 2.0 13.5
2.5 2.0 14.5
3.5 2.0 14.5
3.5 2.0 13.5
3.0 3.0 16.0
2.5 2.0 15.5
2.5 2.0 16.5
3.5 2.0 16.5
3.5 2.0 15.5
3.0 3.0 18.0
2.5 2.0 17.5
2.5 2.0 18.5
3.5 2.0 18.5
3.5 2.0 17.5
3.0 3.0 20.0
2.5 2.0 19.5
2.5 2.0 20.5
3.5 2.0 20.5
3.5 2.0 19.5
3.0 3.0 22.0
2.5 2.0 21.5
2.5 2.0 22.5
3.5 2.0 22.5
3.5 2.0 21.5
